# .PCD v.7 - Point Cloud Data file format
#POINTS 16384
#TIMESTAMP 1112234
#VDY_TX 10.0
#VDY_TY 0.5
#VDY_TZ 0.0
#VDY_RX 0.0
#VDY_RY 0.0
#VDY_RZ 0.0
VERSION .7
FIELDS x y z
SIZE 4 4 4
TYPE F F F
COUNT 1 1 1
WIDTH 1817
HEIGHT 1
VIEWPOINT 0 0 0 1 0 0 0
POINTS 1817
DATA ascii
-9.63281 -6.79297 0.703125
-39.7461 -45.1367 2.69141
-39.7461 -45.1367 2.69141
-41.1953 -46.9805 2.78516
-9.64844 -6.82813 0.835938
-39.3477 -44.6914 3.53906
-39.3477 -44.6914 3.53906
-41.0781 -46.8984 3.69922
-9.64063 -6.82813 0.96875
-38.9492 -44.2656 4.375
-38.9492 -44.2656 4.375
-40.9609 -46.8359 4.60938
-9.66016 -6.85938 1.10547
-39.2383 -44.7305 5.28906
-39.2383 -44.7305 5.28906
-40.9609 -46.9414 5.53516
-9.66016 -6.87891 1.24219
-39.125 -44.7031 6.16016
-39.125 -44.7031 6.16016
-40.8477 -46.9141 6.44922
-9.62891 -6.85938 1.375
-38.6172 -44.1797 6.95703
-38.6172 -44.1797 6.95703
-40.6133 -46.7461 7.33984
-9.625 -6.87891 1.51172
-38.793 -44.5391 7.88281
-38.793 -44.5391 7.88281
-40.4961 -46.7422 8.25391
-9.65234 -6.93359 1.65625
-38.3984 -44.1797 8.68359
-38.3984 -44.1797 8.68359
-40.3789 -46.75 9.16797
-9.62109 -6.91797 1.78906
-38.1797 -44.0547 9.52344
-38.1797 -44.0547 9.52344
-40.1484 -46.6133 10.0586
-9.54297 -6.84766 1.91016
-38.9102 -45.1758 10.6445
-38.9102 -45.1758 10.6445
-40.0313 -46.6367 10.9766
-9.55469 -6.88281 2.05078
-37.8477 -43.9609 11.2266
-37.8477 -43.9609 11.2266
-39.7969 -46.5156 11.8594
-9.55859 -6.91406 2.19531
-38.2227 -44.6328 12.2695
-38.2227 -44.6328 12.2695
-39.6797 -46.5469 12.7813
-9.51953 -6.89063 2.32422
-37.8633 -44.332 13.0586
-37.8633 -44.332 13.0586
-39.4492 -46.4258 13.6563
-9.48047 -6.86719 2.45313
-37.2969 -43.7617 13.75
-37.2969 -43.7617 13.75
-39.2148 -46.3047 14.5313
-5.12891 -1.05469 0.03125
-38.8125 -43.8789 -13.0313
-38.8125 -43.8789 -13.0313
-40.1445 -45.582 -13.5508
-5.14844 -1.07813 0.046875
-39 -43.918 -12.1719
-39 -43.918 -12.1719
-40.3789 -45.668 -12.6719
-5.21094 -1.14844 0.0507813
-39.1172 -43.8711 -11.2891
-39.1172 -43.8711 -11.2891
-40.6133 -45.7578 -11.7891
-5.29297 -1.24609 0.046875
-39.6992 -44.418 -10.5508
-39.6992 -44.418 -10.5508
-40.8477 -45.8516 -10.9023
-5.375 -1.34766 0.0507813
-39.0586 -43.4258 -9.44531
-39.0586 -43.4258 -9.44531
-41.0781 -45.9531 -10.0156
-5.57422 -1.58984 0.0273438
-40.0391 -44.4805 -8.80078
-40.0391 -44.4805 -8.80078
-41.1953 -45.918 -9.09766
-5.625 -1.64453 0.046875
-39.2773 -43.375 -7.71094
-39.2773 -43.375 -7.71094
-41.3125 -45.8945 -8.17969
-5.83984 -1.91016 0.0390625
-39.5 -43.5039 -6.87109
-39.5 -43.5039 -6.87109
-41.5469 -46.0313 -7.28906
-5.95313 -2.04297 0.0546875
-39.6094 -43.5117 -6.00781
-39.6094 -43.5117 -6.00781
-41.6602 -46.0391 -6.375
-6.15234 -2.28516 0.0664063
-40.3086 -44.2578 -5.23828
-40.3086 -44.2578 -5.23828
-41.7773 -46.0625 -5.46484
-6.46484 -2.66016 0.0703125
-40.7148 -44.6602 -4.40234
-40.7148 -44.6602 -4.40234
-41.8945 -46.1016 -4.55469
-6.95313 -3.25 0.0742188
-39.9414 -43.625 -3.42188
-39.9414 -43.625 -3.42188
-42.0117 -46.1602 -3.64063
-40.5313 -44.2891 -2.60156
-40.5313 -44.2891 -2.60156
-40.5313 -44.2891 -2.60156
-42.0117 -46.0938 -2.72266
-9.00391 -5.74219 0.0859375
-40.0508 -43.6523 -1.69141
-40.0508 -43.6523 -1.69141
-42.1289 -46.1914 -1.80859
-9.37891 -6.20313 0.1875
-40.0508 -43.6289 -0.820313
-40.0508 -43.6289 -0.820313
-42.1289 -46.1641 -0.890625
-9.37891 -6.19922 0.308594
-40.6445 -44.3516 0.0429688
-40.6445 -44.3516 0.0429688
-42.1289 -46.1602 0.03125
-9.79688 -6.71094 0.4375
-40.0508 -43.6367 0.910156
-40.0508 -43.6367 0.910156
-42.1289 -46.1719 0.941406
-40.0508 -43.668 1.77734
-40.0508 -43.668 1.77734
-40.0508 -43.668 1.77734
-42.1289 -46.207 1.86328
-9.88281 -6.83203 0.707031
-39.9414 -43.5859 2.64453
-39.9414 -43.5859 2.64453
-42.0117 -46.1211 2.77734
-9.91406 -6.875 0.847656
-40.8281 -44.75 3.59766
-40.8281 -44.75 3.59766
-42.0117 -46.1914 3.69922
-9.89453 -6.86719 0.984375
-39.8281 -43.6094 4.38281
-39.8281 -43.6094 4.38281
-41.8945 -46.1445 4.61719
-9.92969 -6.92578 1.12891
-39.7188 -43.582 5.24609
-39.7188 -43.582 5.24609
-41.7773 -46.1133 5.53125
-9.90625 -6.91797 1.26563
-40.4922 -44.6602 6.25781
-40.4922 -44.6602 6.25781
-41.6602 -46.1016 6.44922
-9.89844 -6.93359 1.40625
-40.3047 -44.5742 7.13672
-40.3047 -44.5742 7.13672
-41.5469 -46.1055 7.37109
-9.90625 -6.96484 1.54688
-39.3906 -43.5938 7.85547
-39.3906 -43.5938 7.85547
-41.4297 -46.125 8.29297
-9.83594 -6.90234 1.67578
-39.168 -43.4883 8.70703
-39.168 -43.4883 8.70703
-41.1953 -46.0156 9.19141
-9.82422 -6.91797 1.81641
-39.9258 -44.625 9.8125
-39.9258 -44.625 9.8125
-41.0781 -46.0625 10.1211
-9.90625 -7.05469 1.98438
-39.6992 -44.5391 10.6875
-39.6992 -44.5391 10.6875
-40.8477 -45.9805 11.0195
-9.75781 -6.90234 2.08984
-38.6172 -43.3828 11.2813
-38.6172 -43.3828 11.2813
-40.6133 -45.9023 11.918
-9.71094 -6.875 2.21875
-39.25 -44.3906 12.4258
-39.25 -44.3906 12.4258
-40.3789 -45.8281 12.8164
-9.65234 -6.83594 2.34375
-38.1758 -43.2461 12.9766
-38.1758 -43.2461 12.9766
-40.1484 -45.7578 13.7109
-9.62891 -6.83984 2.48438
-37.9531 -43.1797 13.8242
-37.9531 -43.1797 13.8242
-39.9141 -45.6875 14.6055
-5.11328 -0.996094 0.0429688
-39.5938 -43.25 -13.1172
-39.5938 -43.25 -13.1172
-40.957 -44.9219 -13.6367
-5.17969 -1.07031 0.0429688
-39.9688 -43.4688 -12.3047
-39.9688 -43.4688 -12.3047
-41.1914 -44.9648 -12.7383
-5.25781 -1.16016 0.0390625
-40.0039 -43.293 -11.375
-40.0039 -43.293 -11.375
-41.4258 -45.0117 -11.8398
-5.30859 -1.21875 0.046875
-40.4922 -43.6602 -10.5898
-40.4922 -43.6602 -10.5898
-41.6563 -45.0703 -10.9453
-5.39453 -1.32031 0.0507813
-39.8242 -42.6563 -9.47656
-39.8242 -42.6563 -9.47656
-41.8906 -45.1367 -10.0469
-5.56641 -1.51563 0.0351563
-40.0469 -42.7344 -8.62891
-40.0469 -42.7344 -8.62891
-42.125 -45.2188 -9.14844
-5.67578 -1.64063 0.0429688
-41.0547 -43.7578 -7.95703
-41.0547 -43.7578 -7.95703
-42.2422 -45.1758 -8.22266
-5.83984 -1.83203 0.0429688
-41.2813 -43.8672 -7.08984
-41.2813 -43.8672 -7.08984
-42.4727 -45.2852 -7.32813
-6.02344 -2.04297 0.0507813
-41.3945 -43.8555 -6.19922
-41.3945 -43.8555 -6.19922
-42.5898 -45.2773 -6.41016
-6.17578 -2.21875 0.0664063
-41.5078 -43.8672 -5.30859
-41.5078 -43.8672 -5.30859
-42.707 -45.2852 -5.49219
-6.49219 -2.58203 0.0742188
-40.707 -42.8242 -4.30859
-40.707 -42.8242 -4.30859
-42.8242 -45.3125 -4.57813
-6.96484 -3.12891 0.078125
-41.043 -43.1328 -3.46484
-41.043 -43.1328 -3.46484
-42.9375 -45.3594 -3.66406
-41.8438 -44.0039 -2.65234
-41.8438 -44.0039 -2.65234
-41.8438 -44.0039 -2.65234
-43.0547 -45.4258 -2.75
-9.10938 -5.62891 0.0820313
-40.9258 -42.8867 -1.70313
-40.9258 -42.8867 -1.70313
-43.0547 -45.3789 -1.82422
-9.63672 -6.24609 0.179688
-41.8438 -43.9258 -0.863281
-41.8438 -43.9258 -0.863281
-43.0547 -45.3477 -0.902344
-9.58203 -6.18359 0.308594
-40.9258 -42.8516 0.0351563
-40.9258 -42.8516 0.0351563
-43.0547 -45.3398 0.015625
-9.96484 -6.63281 0.433594
-40.9258 -42.8633 0.898438
-40.9258 -42.8633 0.898438
-43.0547 -45.3555 0.933594
-40.9258 -42.8945 1.76953
-40.9258 -42.8945 1.76953
-40.9258 -42.8945 1.76953
-43.0547 -45.3906 1.85156
-10.0938 -6.79688 0.710938
-40.9258 -42.9492 2.64453
-40.9258 -42.9492 2.64453
-43.0547 -45.4453 2.77734
-10.1445 -6.86328 0.855469
-40.8164 -42.8906 3.51172
-40.8164 -42.8906 3.51172
-42.9375 -45.3828 3.69922
-10.1484 -6.88281 0.996094
-41.0078 -43.207 4.41406
-41.0078 -43.207 4.41406
-42.8242 -45.3438 4.61328
-10.1641 -6.91797 1.14063
-40.707 -42.9648 5.26563
-40.707 -42.9648 5.26563
-42.8242 -45.4609 5.55078
-10.1367 -6.90625 1.28125
-41.3945 -43.9023 6.26563
-41.3945 -43.9023 6.26563
-42.5898 -45.3242 6.45703
-10.1328 -6.92969 1.42188
-40.375 -42.8516 6.99219
-40.375 -42.8516 6.99219
-42.4727 -45.3398 7.37891
-10.1406 -6.96484 1.57031
-41.168 -43.957 8.05859
-41.168 -43.957 8.05859
-42.3555 -45.3789 8.30859
-10.0977 -6.94531 1.70703
-40.9414 -43.8789 8.9375
-40.9414 -43.8789 8.9375
-42.125 -45.2969 9.21875
-10.0742 -6.94531 1.85156
-39.8242 -42.7461 9.58594
-39.8242 -42.7461 9.58594
-41.8906 -45.2266 10.125
-10.0742 -6.98438 2
-40.0078 -43.1797 10.5625
-40.0078 -43.1797 10.5625
-41.7734 -45.3125 11.0664
-10.0156 -6.94922 2.13281
-39.7891 -43.1445 11.4297
-39.7891 -43.1445 11.4297
-41.543 -45.2734 11.9805
-9.96094 -6.92188 2.26563
-40.0391 -43.6914 12.4609
-40.0391 -43.6914 12.4609
-41.1914 -45.0977 12.8555
-9.91797 -6.90625 2.40625
-38.9453 -42.5977 13.0273
-38.9453 -42.5977 13.0273
-40.957 -45.0742 13.7656
-9.88672 -6.91016 2.54688
-38.7266 -42.5781 13.8945
-38.7266 -42.5781 13.8945
-40.7266 -45.0586 14.6797
-5.15234 -1.00781 0.0351563
-40.1211 -42.1914 -13.0664
-40.1211 -42.1914 -13.0664
-41.8906 -44.2773 -13.7305
-5.21875 -1.07813 0.0351563
-40.0469 -41.8477 -12.0938
-40.0469 -41.8477 -12.0938
-42.125 -44.2813 -12.8164
-5.26953 -1.13281 0.0429688
-41.1641 -42.9102 -11.5195
-41.1641 -42.9102 -11.5195
-42.3555 -44.2969 -11.9023
-5.32813 -1.19531 0.046875
-40.4883 -41.8906 -10.3711
-40.4883 -41.8906 -10.3711
-42.5898 -44.3242 -10.9961
-5.42188 -1.29297 0.0507813
-41.0078 -42.2773 -9.59766
-41.0078 -42.2773 -9.59766
-42.8242 -44.3711 -10.0898
-5.54297 -1.42969 0.046875
-40.9258 -41.9883 -8.66016
-40.9258 -41.9883 -8.66016
-43.0547 -44.4297 -9.18359
-5.70313 -1.60547 0.0429688
-41.9531 -42.9805 -7.98438
-41.9531 -42.9805 -7.98438
-43.1719 -44.3711 -8.25391
-5.88672 -1.80859 0.0390625
-42.1797 -43.0703 -7.11328
-42.1797 -43.0703 -7.11328
-43.4063 -44.4609 -7.35547
-6.12891 -2.07813 0.0390625
-41.3672 -42 -6.05859
-41.3672 -42 -6.05859
-43.5234 -44.4414 -6.42969
-6.25 -2.21094 0.0625
-41.4766 -42 -5.19141
-41.4766 -42 -5.19141
-43.6367 -44.4414 -5.51172
-6.54297 -2.53125 0.0742188
-41.8984 -42.3711 -4.36328
-41.8984 -42.3711 -4.36328
-43.7539 -44.4609 -4.59375
-7.03516 -3.07813 0.0742188
-42.125 -42.5391 -3.5
-42.125 -42.5391 -3.5
-43.8711 -44.5 -3.67969
-42.1172 -42.4648 -2.61328
-42.1172 -42.4648 -2.61328
-42.1172 -42.4648 -2.61328
-43.9883 -44.5625 -2.76172
-9.24609 -5.55078 0.0820313
-41.8086 -42.0664 -1.71484
-41.8086 -42.0664 -1.71484
-43.9883 -44.5117 -1.83594
-9.89063 -6.26953 0.175781
-41.8086 -42.0391 -0.84375
-41.8086 -42.0391 -0.84375
-43.9883 -44.4844 -0.914063
-9.88672 -6.26563 0.304688
-42.8555 -43.2109 0.015625
-42.8555 -43.2109 0.015625
-44.1055 -44.6055 0.00390625
-10.1523 -6.56641 0.433594
-41.918 -42.168 0.894531
-41.918 -42.168 0.894531
-44.1055 -44.6172 0.925781
-42.7461 -43.1289 1.79688
-42.7461 -43.1289 1.79688
-42.7461 -43.1289 1.79688
-43.9883 -44.5195 1.84375
-10.332 -6.77734 0.71875
-41.8086 -42.125 2.63672
-41.8086 -42.125 2.63672
-43.9883 -44.5742 2.76953
-10.3984 -6.86328 0.863281
-42.3555 -42.8164 3.5625
-42.3555 -42.8164 3.5625
-43.8711 -44.5195 3.69141
-10.3984 -6.87891 1.00781
-41.5859 -42.0391 4.375
-41.5859 -42.0391 4.375
-43.7539 -44.4844 4.60938
-10.4102 -6.91016 1.15234
-41.5859 -42.1484 5.25781
-41.5859 -42.1484 5.25781
-43.7539 -44.6016 5.54688
-10.4141 -6.9375 1.30078
-42.4063 -43.2148 6.28125
-42.4063 -43.2148 6.28125
-43.6367 -44.6094 6.47266
-10.4102 -6.95313 1.44922
-42.1016 -43.0234 7.14453
-42.1016 -43.0234 7.14453
-43.4063 -44.5 7.37891
-10.4063 -6.98047 1.59766
-41.1484 -42.1016 7.875
-41.1484 -42.1016 7.875
-43.2891 -44.5469 8.3125
-10.3633 -6.96094 1.73828
-41.8398 -43.0898 8.94531
-41.8398 -43.0898 8.94531
-43.0547 -44.4844 9.22266
-10.3477 -6.97656 1.88672
-40.8164 -42.125 9.62891
-40.8164 -42.125 9.62891
-42.9375 -44.5703 10.168
-10.2969 -6.95703 2.02734
-40.7852 -42.3125 10.5508
-40.7852 -42.3125 10.5508
-42.5898 -44.4023 11.0547
-10.2617 -6.95313 2.16797
-40.2656 -41.9492 11.3359
-40.2656 -41.9492 11.3359
-42.3555 -44.3906 11.9727
-10.2227 -6.95313 2.3125
-40.9375 -43 12.5039
-40.9375 -43 12.5039
-42.125 -44.3867 12.8984
-10.1719 -6.93359 2.45313
-40.7109 -43.0117 13.4023
-40.7109 -43.0117 13.4023
-41.8906 -44.3984 13.8242
-10.1211 -6.92188 2.59375
-40.375 -42.8984 14.2617
-40.375 -42.8984 14.2617
-41.543 -44.2813 14.7109
-5.1875 -1.00781 0.0273438
-41.2734 -41.7773 -13.2227
-41.2734 -41.7773 -13.2227
-42.8242 -43.5313 -13.793
-5.21875 -1.03516 0.0390625
-41.6875 -41.9766 -12.4023
-41.6875 -41.9766 -12.4023
-43.0547 -43.5117 -12.8672
-5.30469 -1.125 0.0351563
-41.7578 -41.7969 -11.4648
-41.7578 -41.7969 -11.4648
-43.2891 -43.5039 -11.9453
-5.35938 -1.17578 0.046875
-42.293 -42.1563 -10.6758
-42.293 -42.1563 -10.6758
-43.5234 -43.5156 -11.0313
-5.45313 -1.27734 0.046875
-42.3242 -41.9688 -9.74219
-42.3242 -41.9688 -9.74219
-43.7539 -43.543 -10.1211
-5.59766 -1.42969 0.0390625
-42.2734 -41.7109 -8.79688
-42.2734 -41.7109 -8.79688
-43.9883 -43.5898 -9.21094
-5.77734 -1.62109 0.03125
-42.6992 -41.9961 -7.97266
-42.6992 -41.9961 -7.97266
-44.1055 -43.5273 -8.27734
-5.95703 -1.80859 0.0351563
-42.8438 -41.9883 -7.08594
-42.8438 -41.9883 -7.08594
-44.3359 -43.6133 -7.375
-6.17188 -2.03906 0.0351563
-42.8789 -41.8789 -6.18359
-42.8789 -41.8789 -6.18359
-44.4531 -43.5898 -6.44922
-6.25781 -2.125 0.0664063
-42.4688 -41.3086 -5.21875
-42.4688 -41.3086 -5.21875
-44.6875 -43.7109 -5.54297
-6.60156 -2.48438 0.0703125
-43.1016 -41.8906 -4.41406
-43.1016 -41.8906 -4.41406
-44.6875 -43.6016 -4.60938
-6.98438 -2.89453 0.0859375
-42.5781 -41.2383 -3.46875
-42.5781 -41.2383 -3.46875
-44.8047 -43.6367 -3.69141
-43.2461 -41.8906 -2.64453
-43.2461 -41.8906 -2.64453
-43.2461 -41.8906 -2.64453
-44.9219 -43.6953 -2.77344
-9.42578 -5.50781 0.0742188
-42.6875 -41.2461 -1.72656
-42.6875 -41.2461 -1.72656
-44.9219 -43.6445 -1.84766
-10.1133 -6.24609 0.171875
-43.3594 -41.9375 -0.875
-43.3594 -41.9375 -0.875
-45.0352 -43.7422 -0.929688
-10.0859 -6.21484 0.304688
-43.4766 -42.0586 0.0117188
-43.4766 -42.0586 0.0117188
-45.0352 -43.7305 -0.00390625
-10.4922 -6.65234 0.4375
-43.4375 -42.0234 0.894531
-43.4375 -42.0234 0.894531
-45.0352 -43.7422 0.914063
-43.4375 -42.0547 1.78125
-43.4375 -42.0547 1.78125
-43.4375 -42.0547 1.78125
-45.0352 -43.7734 1.83984
-10.5938 -6.77344 0.722656
-43.4883 -42.1563 2.67969
-43.4883 -42.1563 2.67969
-44.9219 -43.6992 2.76172
-10.6563 -6.85156 0.871094
-43.2695 -41.9922 3.55859
-43.2695 -41.9922 3.55859
-44.8047 -43.6445 3.68359
-10.6836 -6.89453 1.02344
-43.3359 -42.1523 4.46094
-43.3359 -42.1523 4.46094
-44.8047 -43.7383 4.61719
-10.6797 -6.90625 1.16797
-43.1797 -42.0977 5.34766
-43.1797 -42.0977 5.34766
-44.6875 -43.7266 5.54297
-10.6836 -6.93359 1.32031
-43.0313 -42.0625 6.23438
-43.0313 -42.0625 6.23438
-44.5703 -43.7344 6.46875
-10.6758 -6.94922 1.46875
-42.1367 -41.2383 6.99219
-42.1367 -41.2383 6.99219
-44.3359 -43.6367 7.37891
-10.6484 -6.94922 1.61719
-42.9688 -42.3203 8.0625
-42.9688 -42.3203 8.0625
-44.2227 -43.6836 8.3125
-10.6289 -6.95703 1.76563
-42.3516 -41.832 8.85938
-42.3516 -41.832 8.85938
-43.9883 -43.625 9.22656
-10.5586 -6.91797 1.90234
-42.5195 -42.2266 9.83594
-42.5195 -42.2266 9.83594
-43.7539 -43.5898 10.1445
-10.5508 -6.94531 2.05469
-42.1328 -42.0313 10.6836
-42.1328 -42.0313 10.6836
-43.6367 -43.6992 11.0938
-10.5273 -6.96094 2.20703
-41.8359 -41.9453 11.5547
-41.8359 -41.9453 11.5547
-43.2891 -43.5664 11.9883
-10.4375 -6.90234 2.33984
-41.6523 -42.0078 12.4609
-41.6523 -42.0078 12.4609
-43.0547 -43.5898 12.918
-10.4141 -6.92578 2.49219
-41.4648 -42.082 13.3789
-41.4648 -42.082 13.3789
-42.8242 -43.6211 13.8555
-10.3516 -6.90234 2.63281
-41.2773 -42.1758 14.3047
-41.2773 -42.1758 14.3047
-42.4727 -43.5391 14.7539
-5.19922 -0.976563 0.03125
-42.25 -41.1016 -13.2969
-42.25 -41.1016 -13.2969
-43.6328 -42.5977 -13.7969
-5.26563 -1.03906 0.03125
-42.5352 -41.1328 -12.418
-42.5352 -41.1328 -12.418
-43.9844 -42.6953 -12.9063
-5.31641 -1.08984 0.0390625
-42.7734 -41.1328 -11.5352
-42.7734 -41.1328 -11.5352
-44.2188 -42.6797 -11.9805
-5.38672 -1.15625 0.0429688
-43.0391 -41.1797 -10.6602
-43.0391 -41.1797 -10.6602
-44.4492 -42.6797 -11.0625
-5.48438 -1.25781 0.046875
-43.1797 -41.1133 -9.75391
-43.1797 -41.1133 -9.75391
-44.6836 -42.7031 -10.1484
-5.60547 -1.375 0.046875
-42.6836 -40.3984 -8.70703
-42.6836 -40.3984 -8.70703
-44.918 -42.7461 -9.23438
-5.875 -1.65234 0.0195313
-43.5195 -41.0898 -7.97656
-43.5195 -41.0898 -7.97656
-45.0313 -42.6797 -8.30078
-5.92578 -1.70313 0.046875
-43.6602 -41.082 -7.08984
-43.6602 -41.082 -7.08984
-45.2656 -42.7617 -7.39453
-6.20703 -1.98828 0.0351563
-43.2344 -40.5 -6.11328
-43.2344 -40.5 -6.11328
-45.5 -42.8594 -6.48828
-6.33203 -2.11328 0.0625
-43.9922 -41.168 -5.32813
-43.9922 -41.168 -5.32813
-45.5 -42.7344 -5.54297
-6.67188 -2.45703 0.0664063
-44.4375 -41.5273 -4.48438
-44.4375 -41.5273 -4.48438
-45.7305 -42.8672 -4.64063
-7.125 -2.91797 0.078125
-44.3555 -41.3594 -3.57031
-44.3555 -41.3594 -3.57031
-45.7305 -42.7813 -3.70703
-43.5664 -40.4805 -2.61328
-43.5664 -40.4805 -2.61328
-43.5664 -40.4805 -2.61328
-45.8477 -42.8359 -2.78516
-9.55859 -5.41406 0.0742188
-44.3867 -41.2813 -1.78125
-44.3867 -41.2813 -1.78125
-45.8477 -42.7852 -1.85938
-10.3555 -6.23828 0.164063
-44.6641 -41.5391 -0.898438
-44.6641 -41.5391 -0.898438
-45.9648 -42.8789 -0.9375
-10.3633 -6.24609 0.300781
-43.6758 -40.5156 0.0078125
-43.6758 -40.5156 0.0078125
-45.9648 -42.8711 -0.0117188
-10.7656 -6.66016 0.4375
-44.6641 -41.5391 0.890625
-44.6641 -41.5391 0.890625
-45.9648 -42.8789 0.90625
-43.6758 -40.5508 1.75391
-43.6758 -40.5508 1.75391
-43.6758 -40.5508 1.75391
-45.9648 -42.9102 1.83594
-10.8516 -6.76172 0.730469
-44.5508 -41.5 2.68359
-44.5508 -41.5 2.68359
-45.8477 -42.8359 2.75781
-10.918 -6.83984 0.882813
-44.168 -41.168 3.55469
-44.168 -41.168 3.55469
-45.7305 -42.7852 3.67969
-10.9336 -6.86719 1.03125
-44.1094 -41.1914 4.44531
-44.1094 -41.1914 4.44531
-45.7305 -42.8711 4.61328
-10.9336 -6.88281 1.18359
-43.3438 -40.5039 5.25391
-43.3438 -40.5039 5.25391
-45.6133 -42.8594 5.53906
-10.9375 -6.90625 1.33594
-44.2109 -41.5273 6.27344
-44.2109 -41.5273 6.27344
-45.5 -42.8711 6.46484
-10.918 -6.91016 1.48438
-43.0156 -40.4258 6.99219
-43.0156 -40.4258 6.99219
-45.2656 -42.7734 7.37891
-10.9141 -6.93359 1.63672
-43.8711 -41.4805 8.0625
-43.8711 -41.4805 8.0625
-45.1484 -42.8203 8.3125
-10.8945 -6.94531 1.78906
-43.543 -41.3164 8.92578
-43.543 -41.3164 8.92578
-45.0313 -42.8906 9.25391
-10.8594 -6.94531 1.94141
-43.5352 -41.5117 9.86719
-43.5352 -41.5117 9.86719
-44.8008 -42.8555 10.1758
-10.8242 -6.94141 2.08984
-42.957 -41.125 10.668
-42.957 -41.125 10.668
-44.4492 -42.7148 11.0703
-10.7969 -6.95703 2.24609
-43.082 -41.5078 11.6641
-43.082 -41.5078 11.6641
-44.332 -42.8438 12.0313
-10.7305 -6.92578 2.38672
-41.8047 -40.3984 12.2383
-41.8047 -40.3984 12.2383
-43.9844 -42.7461 12.9297
-10.7305 -6.97656 2.55078
-42.5195 -41.4531 13.4453
-42.5195 -41.4531 13.4453
-43.75 -42.7891 13.8711
-10.6641 -6.95703 2.69922
-41.8672 -41.0508 14.2109
-41.8672 -41.0508 14.2109
-43.4023 -42.7266 14.7773
-5.1875 -0.921875 0.0429688
-43.0664 -40.2305 -13.3047
-43.0664 -40.2305 -13.3047
-44.5664 -41.7852 -13.8359
-5.28906 -1.01953 0.03125
-43.3125 -40.2109 -12.4141
-43.3125 -40.2109 -12.4141
-44.8008 -41.7461 -12.9023
-5.34375 -1.07031 0.0390625
-42.793 -39.4375 -11.3008
-42.793 -39.4375 -11.3008
-45.0313 -41.7305 -11.9766
-5.41016 -1.13281 0.0429688
-43.7695 -40.207 -10.6445
-43.7695 -40.207 -10.6445
-45.3828 -41.8516 -11.0898
-5.5 -1.22266 0.046875
-44.1602 -40.3945 -9.80469
-44.1602 -40.3945 -9.80469
-45.6133 -41.8711 -10.1758
-5.71875 -1.43359 0.0273438
-43.5664 -39.6055 -8.73438
-43.5664 -39.6055 -8.73438
-45.8477 -41.9063 -9.26172
-5.78906 -1.5 0.0429688
-44.4102 -40.293 -8.00391
-44.4102 -40.293 -8.00391
-45.9648 -41.8477 -8.32813
-5.95313 -1.66016 0.046875
-44.6797 -40.4102 -7.13672
-44.6797 -40.4102 -7.13672
-46.1992 -41.9258 -7.41797
-6.19531 -1.89453 0.0429688
-44.7227 -40.3203 -6.23047
-44.7227 -40.3203 -6.23047
-46.3125 -41.9063 -6.48828
-6.34766 -2.04297 0.0664063
-44.7773 -40.2617 -5.33203
-44.7773 -40.2617 -5.33203
-46.4297 -41.9023 -5.56641
-6.70313 -2.38281 0.0703125
-44.9727 -40.3594 -4.45703
-44.9727 -40.3594 -4.45703
-46.5469 -41.9219 -4.64453
-7.10156 -2.77344 0.0859375
-44.2266 -39.5391 -3.48828
-44.2266 -39.5391 -3.48828
-46.5469 -41.8398 -3.71094
-45.0586 -40.3086 -2.67188
-45.0586 -40.3086 -2.67188
-45.0586 -40.3086 -2.67188
-46.6641 -41.8906 -2.79297
-9.67969 -5.31641 0.0703125
-44.3359 -39.5469 -1.74219
-44.3359 -39.5469 -1.74219
-46.6641 -41.8477 -1.86719
-10.5703 -6.19531 0.160156
-44.4453 -39.6328 -0.875
-44.4453 -39.6328 -0.875
-46.7813 -41.9336 -0.945313
-10.6016 -6.22656 0.296875
-45.2422 -40.4102 -0.0078125
-45.2422 -40.4102 -0.0078125
-46.7813 -41.9258 -0.0195313
-10.9492 -6.57031 0.4375
-44.4453 -39.6328 0.871094
-44.4453 -39.6328 0.871094
-46.7813 -41.9336 0.898438
-45.2813 -40.4844 1.77344
-45.2813 -40.4844 1.77344
-45.2813 -40.4844 1.77344
-46.7813 -41.9609 1.82422
-11.0977 -6.73047 0.734375
-45.0859 -40.332 2.66016
-45.0859 -40.332 2.66016
-46.6641 -41.8906 2.75
-11.1914 -6.82422 0.890625
-45.0859 -40.3945 3.55469
-45.0859 -40.3945 3.55469
-46.6641 -41.9531 3.67969
-11.25 -6.89453 1.05078
-44.2266 -39.6172 4.36719
-44.2266 -39.6172 4.36719
-46.5469 -41.9219 4.60156
-11.2188 -6.88281 1.19922
-45.1094 -40.5977 5.36328
-45.1094 -40.5977 5.36328
-46.4297 -41.9063 5.52344
-11.2344 -6.91797 1.35547
-44.9453 -40.5469 6.25391
-44.9453 -40.5469 6.25391
-46.4297 -42.0273 6.46875
-11.1953 -6.90234 1.50781
-44.8828 -40.6211 7.16016
-44.8828 -40.6211 7.16016
-46.1992 -41.9297 7.38281
-11.2031 -6.93359 1.66406
-44.6094 -40.4961 8.03516
-44.6094 -40.4961 8.03516
-46.082 -41.9727 8.31641
-11.168 -6.93359 1.81641
-44.5469 -40.6094 8.95703
-44.5469 -40.6094 8.95703
-45.8477 -41.918 9.23438
-11.125 -6.92188 1.96875
-44.4336 -40.6875 9.875
-44.4336 -40.6875 9.875
-45.7305 -42 10.1836
-11.1094 -6.94141 2.125
-44.207 -40.6719 10.7695
-44.207 -40.6719 10.7695
-45.5 -41.9883 11.1055
-11.0469 -6.91797 2.27344
-43.5781 -40.2617 11.5586
-43.5781 -40.2617 11.5586
-45.2656 -41.9922 12.0391
-10.9844 -6.89844 2.42188
-43.2422 -40.1719 12.4219
-43.2422 -40.1719 12.4219
-44.918 -41.8984 12.9414
-10.9492 -6.91016 2.57813
-43.1523 -40.3594 13.3711
-43.1523 -40.3594 13.3711
-44.6836 -41.9453 13.8828
-10.8906 -6.89844 2.72656
-42.8828 -40.3711 14.2734
-42.8828 -40.3711 14.2734
-44.332 -41.8867 14.793
-5.22266 -0.917969 0.0351563
-43.8828 -39.3594 -13.3203
-43.8828 -39.3594 -13.3203
-45.4961 -40.9688 -13.8789
-5.30859 -0.996094 0.03125
-43.4531 -38.6836 -12.2148
-43.4531 -38.6836 -12.2148
-45.7266 -40.9336 -12.9453
-5.35547 -1.03906 0.0390625
-44.4609 -39.4453 -11.5742
-44.4609 -39.4453 -11.5742
-45.9609 -40.918 -12.0195
-5.4375 -1.11328 0.0429688
-44.5547 -39.3164 -10.6484
-44.5547 -39.3164 -10.6484
-46.1953 -40.9219 -11.0977
-5.55469 -1.22266 0.0390625
-44.9453 -39.5039 -9.80859
-44.9453 -39.5039 -9.80859
-46.4258 -40.9453 -10.1797
-5.73438 -1.39063 0.0273438
-45.1406 -39.5156 -8.92188
-45.1406 -39.5156 -8.92188
-46.6602 -40.9844 -9.26563
-5.73047 -1.38281 0.0625
-45.2227 -39.4375 -8.01563
-45.2227 -39.4375 -8.01563
-46.7773 -40.9336 -8.33203
-6.01563 -1.65234 0.0429688
-45.4219 -39.4844 -7.13672
-45.4219 -39.4844 -7.13672
-47.0078 -41.0117 -7.42578
-6.20703 -1.83203 0.046875
-45.5625 -39.4922 -6.24609
-45.5625 -39.4922 -6.24609
-47.125 -40.9922 -6.49609
-6.4375 -2.04688 0.0585938
-45.6719 -39.4922 -5.35547
-45.6719 -39.4922 -5.35547
-47.2422 -40.9922 -5.57422
-6.73438 -2.31641 0.0703125
-45.6719 -39.4023 -4.45313
-45.6719 -39.4023 -4.45313
-47.3594 -41.0117 -4.65234
-7.23438 -2.78906 0.078125
-45.6172 -39.2734 -3.55469
-45.6172 -39.2734 -3.55469
-47.4766 -41.0469 -3.73047
-45.6992 -39.2969 -2.66797
-45.6992 -39.2969 -2.66797
-45.6992 -39.2969 -2.66797
-47.4766 -40.9883 -2.80078
-9.82422 -5.23828 0.0703125
-46.0273 -39.5664 -1.80078
-46.0273 -39.5664 -1.80078
-47.5938 -41.0586 -1.87891
-10.7109 -6.08203 0.160156
-46.0703 -39.582 -0.90625
-46.0703 -39.582 -0.90625
-47.5938 -41.0313 -0.953125
-10.8281 -6.19141 0.296875
-45.9297 -39.4414 -0.0117188
-45.9297 -39.4414 -0.0117188
-47.5938 -41.0234 -0.0273438
-11.25 -6.58984 0.4375
-46.0703 -39.582 0.871094
-46.0703 -39.582 0.871094
-47.5938 -41.0313 0.890625
-46.2383 -39.7695 1.77344
-46.2383 -39.7695 1.77344
-46.2383 -39.7695 1.77344
-47.5938 -41.0547 1.82031
-11.3984 -6.74219 0.742188
-45.1016 -38.7344 2.60938
-45.1016 -38.7344 2.60938
-47.4766 -40.9844 2.74219
-11.4688 -6.81641 0.902344
-45.1016 -38.7891 3.48828
-45.1016 -38.7891 3.48828
-47.4766 -41.043 3.67188
-11.4727 -6.83203 1.05859
-46.0117 -39.7227 4.46094
-46.0117 -39.7227 4.46094
-47.3594 -41.0117 4.59375
-11.4883 -6.86328 1.21484
-45.6719 -39.4883 5.32813
-45.6719 -39.4883 5.32813
-47.3633 -41.1016 5.53125
-11.4805 -6.87109 1.37109
-45.7031 -39.625 6.24219
-45.7031 -39.625 6.24219
-47.125 -40.9922 6.44531
-11.4805 -6.89063 1.53125
-45.4492 -39.5078 7.11719
-45.4492 -39.5078 7.11719
-47.0078 -41.0078 7.375
-11.4648 -6.90234 1.6875
-45.2266 -39.4375 7.99609
-45.2266 -39.4375 7.99609
-46.8945 -41.043 8.30859
-11.4336 -6.89844 1.84375
-44.332 -38.7344 8.73828
-44.332 -38.7344 8.73828
-46.6602 -40.9844 9.22266
-11.4453 -6.94531 2.00781
-45.2227 -39.7773 9.85938
-45.2227 -39.7773 9.85938
-46.543 -41.0625 10.168
-11.3828 -6.91797 2.16016
-44.832 -39.5977 10.7148
-44.832 -39.5977 10.7148
-46.3086 -41.0391 11.0938
-11.332 -6.91016 2.3125
-44.4805 -39.4727 11.5742
-44.4805 -39.4727 11.5742
-46.0781 -41.0391 12.0195
-11.25 -6.86719 2.45703
-43.8906 -39.1289 12.3633
-43.8906 -39.1289 12.3633
-45.8438 -41.0625 12.957
-11.2344 -6.89844 2.62109
-44.0469 -39.543 13.3867
-44.0469 -39.543 13.3867
-45.4961 -40.9883 13.8633
-11.1484 -6.86719 2.76563
-43.0156 -38.7969 14.0195
-43.0156 -38.7969 14.0195
-45.2617 -41.0508 14.8125
-5.26563 -0.921875 0.0273438
-44.9961 -38.8047 -13.4453
-44.9961 -38.8047 -13.4453
-46.3086 -40.0586 -13.8906
-5.32422 -0.972656 0.03125
-44.2227 -37.8281 -12.2227
-44.2227 -37.8281 -12.2227
-46.543 -40.0273 -12.957
-5.37109 -1.01172 0.0429688
-45.1094 -38.4492 -11.5469
-45.1094 -38.4492 -11.5469
-46.7773 -40.0195 -12.0313
-5.44141 -1.07422 0.046875
-45.5039 -38.6172 -10.707
-45.5039 -38.6172 -10.707
-47.0078 -40.0273 -11.1094
-5.55859 -1.17969 0.0429688
-45.5977 -38.5195 -9.78906
-45.5977 -38.5195 -9.78906
-47.2422 -40.0547 -10.1953
-5.77344 -1.37109 0.0234375
-45.1016 -37.8984 -8.75391
-45.1016 -37.8984 -8.75391
-47.4766 -40.1016 -9.28125
-5.8125 -1.40234 0.0507813
-46.1484 -38.7148 -8.05859
-46.1484 -38.7148 -8.05859
-47.707 -40.1602 -8.37109
-6.09766 -1.66406 0.03125
-45.4336 -37.9258 -7.01172
-45.4336 -37.9258 -7.01172
-47.8242 -40.125 -7.4375
-6.20703 -1.75781 0.0546875
-46.5781 -38.8594 -6.29688
-46.5781 -38.8594 -6.29688
-47.9414 -40.1133 -6.51172
-6.50391 -2.02734 0.0546875
-46.4258 -38.625 -5.36719
-46.4258 -38.625 -5.36719
-48.0586 -40.1172 -5.58594
-6.74219 -2.23828 0.0742188
-46.4531 -38.5625 -4.46875
-46.4531 -38.5625 -4.46875
-48.1758 -40.1367 -4.66406
-7.21094 -2.66016 0.0820313
-46.5625 -38.5977 -3.58203
-46.5625 -38.5977 -3.58203
-48.293 -40.1719 -3.74219
-46.918 -38.8633 -2.71094
-46.918 -38.8633 -2.71094
-46.918 -38.8633 -2.71094
-48.293 -40.1172 -2.80859
-9.8125 -5.02344 0.0742188
-46.8086 -38.7305 -1.80859
-46.8086 -38.7305 -1.80859
-48.4063 -40.1836 -1.89063
-10.8008 -5.92188 0.160156
-46.6758 -38.5859 -0.910156
-46.6758 -38.5859 -0.910156
-48.4063 -40.1602 -0.960938
-11.1133 -6.20703 0.292969
-46.8086 -38.6992 -0.0195313
-46.8086 -38.6992 -0.0195313
-48.4063 -40.1523 -0.0351563
-11.5156 -6.57422 0.4375
-47.0273 -38.9023 0.871094
-47.0273 -38.9023 0.871094
-48.4063 -40.1602 0.886719
-46.6484 -38.582 1.75781
-46.6484 -38.582 1.75781
-46.6484 -38.582 1.75781
-48.4063 -40.1836 1.81641
-11.6484 -6.70313 0.75
-46.918 -38.8594 2.66406
-46.918 -38.8594 2.66406
-48.293 -40.1133 2.73828
-11.7422 -6.80078 0.910156
-46.8281 -38.832 3.55859
-46.8281 -38.832 3.55859
-48.293 -40.168 3.67188
-11.75 -6.81641 1.07031
-46.8047 -38.8789 4.46094
-46.8047 -38.8789 4.46094
-48.1758 -40.1328 4.59375
-11.7539 -6.83594 1.23047
-46.5156 -38.6992 5.33594
-46.5156 -38.6992 5.33594
-48.0586 -40.1133 5.51953
-11.7734 -6.86719 1.39453
-45.6523 -38.0039 6.125
-45.6523 -38.0039 6.125
-48.0586 -40.2148 6.46094
-11.8008 -6.91406 1.55859
-46.4063 -38.8125 7.14453
-46.4063 -38.8125 7.14453
-47.9414 -40.2305 7.39453
-11.7773 -6.91797 1.71875
-46.0313 -38.6016 8
-46.0313 -38.6016 8
-47.707 -40.1563 8.30859
-11.7227 -6.89453 1.875
-45.1016 -37.8906 8.73438
-45.1016 -37.8906 8.73438
-47.4766 -40.0938 9.22266
-11.7305 -6.92969 2.04297
-46.0117 -38.8984 9.85938
-46.0117 -38.8984 9.85938
-47.3594 -40.1563 10.1641
-11.6953 -6.92969 2.20313
-45.6172 -38.7188 10.7109
-45.6172 -38.7188 10.7109
-47.125 -40.1328 11.0898
-11.6367 -6.91406 2.35938
-45.332 -38.6602 11.5898
-45.332 -38.6602 11.5898
-46.8945 -40.1289 12.0156
-11.5859 -6.90625 2.51563
-45.3359 -38.8867 12.5547
-45.3359 -38.8867 12.5547
-46.6602 -40.1406 12.9492
-11.5469 -6.91016 2.67969
-44.7734 -38.6016 13.3594
-44.7734 -38.6016 13.3594
-46.4258 -40.1758 13.8906
-11.4688 -6.88672 2.82813
-44.7734 -38.8633 14.3477
-44.7734 -38.8633 14.3477
-46.0781 -40.1172 14.8008
-5.24219 -0.863281 0.0390625
-45.418 -37.6172 -13.3398
-45.418 -37.6172 -13.3398
-47.0078 -39.0742 -13.8711
-5.34766 -0.953125 0.03125
-45.668 -37.6172 -12.4531
-45.668 -37.6172 -12.4531
-47.3594 -39.1563 -12.9766
-5.37109 -0.96875 0.046875
-46.2344 -37.9258 -11.6641
-46.2344 -37.9258 -11.6641
-47.5938 -39.1523 -12.0547
-5.48438 -1.06641 0.0429688
-46.1602 -37.668 -10.6953
-46.1602 -37.668 -10.6953
-47.8242 -39.1641 -11.1328
-5.58594 -1.15625 0.0429688
-45.6523 -37.043 -9.63672
-45.6523 -37.043 -9.63672
-48.0586 -39.1953 -10.2188
-5.79688 -1.33984 0.0234375
-46.9141 -38.0156 -9
-46.9141 -38.0156 -9
-48.293 -39.2422 -9.30469
-5.87891 -1.41016 0.0429688
-46.7617 -37.7422 -8.04297
-46.7617 -37.7422 -8.04297
-48.4063 -39.1992 -8.36719
-6.14063 -1.63281 0.03125
-46.7891 -37.6406 -7.13281
-46.7891 -37.6406 -7.13281
-48.5234 -39.1758 -7.4375
-6.28906 -1.76563 0.046875
-46.3125 -37.1133 -6.15234
-46.3125 -37.1133 -6.15234
-48.7578 -39.2695 -6.53125
-6.57813 -2.01563 0.046875
-47.125 -37.7383 -5.37109
-47.125 -37.7383 -5.37109
-48.875 -39.2773 -5.60547
-6.77344 -2.17969 0.0742188
-47.2813 -37.7969 -4.48828
-47.2813 -37.7969 -4.48828
-48.9883 -39.2969 -4.67969
-7.25391 -2.59375 0.0820313
-47.3906 -37.832 -3.59766
-47.3906 -37.832 -3.59766
-49.1055 -39.3359 -3.75391
-47.7031 -38.0547 -2.72266
-47.7031 -38.0547 -2.72266
-47.7031 -38.0547 -2.72266
-49.1055 -39.2852 -2.82422
-47.7031 -38.0195 -1.82422
-47.7031 -38.0195 -1.82422
-47.7031 -38.0195 -1.82422
-49.1055 -39.2461 -1.89453
-10.9492 -5.82422 0.15625
-47.8164 -38.0938 -0.929688
-47.8164 -38.0938 -0.929688
-49.2227 -39.3242 -0.96875
-11.3672 -6.1875 0.292969
-46.7539 -37.1602 -0.0195313
-46.7539 -37.1602 -0.0195313
-49.2227 -39.3203 -0.0390625
-11.8125 -6.57813 0.4375
-47.4609 -37.7852 0.863281
-47.4609 -37.7852 0.863281
-49.2227 -39.3242 0.882813
-47.4609 -37.8047 1.75391
-47.4609 -37.8047 1.75391
-47.4609 -37.8047 1.75391
-49.2227 -39.3477 1.8125
-12.0078 -6.75781 0.761719
-47.7031 -38.0508 2.66406
-47.7031 -38.0508 2.66406
-49.1055 -39.2773 2.73828
-12.0742 -6.82813 0.925781
-47.5273 -37.9453 3.55469
-47.5273 -37.9453 3.55469
-49.1055 -39.3281 3.67188
-12.0898 -6.84766 1.08984
-47.5898 -38.0625 4.46484
-47.5898 -38.0625 4.46484
-48.9883 -39.293 4.59766
-12.0898 -6.86328 1.25391
-46.4258 -37.1133 5.23828
-46.4258 -37.1133 5.23828
-48.875 -39.2695 5.52344
-12.1094 -6.89844 1.42188
-47.2422 -37.9258 6.24219
-47.2422 -37.9258 6.24219
-48.875 -39.3672 6.46484
-12.0781 -6.89063 1.58203
-46.9609 -37.7852 7.11328
-46.9609 -37.7852 7.11328
-48.6406 -39.2695 7.37891
-12.0703 -6.90625 1.75
-47.1367 -38.0664 8.06641
-47.1367 -38.0664 8.06641
-48.5234 -39.293 8.3125
-12.0234 -6.88672 1.90625
-45.875 -37.0742 8.74219
-45.875 -37.0742 8.74219
-48.293 -39.2305 9.23047
-11.9922 -6.89063 2.07031
-46.4102 -37.7109 9.77734
-46.4102 -37.7109 9.77734
-48.1758 -39.2891 10.1719
-12.0078 -6.9375 2.24609
-45.543 -37.1016 10.5039
-45.543 -37.1016 10.5039
-47.9414 -39.2578 11.0938
-11.8906 -6.86328 2.39063
-45.3242 -37.0938 11.3789
-45.3242 -37.0938 11.3789
-47.707 -39.25 12.0195
-11.8438 -6.85938 2.55078
-45.7813 -37.7148 12.457
-45.7813 -37.7148 12.457
-47.4766 -39.2578 12.9531
-11.7891 -6.84766 2.71094
-44.7734 -37.0234 13.1133
-44.7734 -37.0234 13.1133
-47.125 -39.1758 13.8555
-11.6953 -6.8125 2.85938
-44.5508 -37.0625 14.0078
-44.5508 -37.0625 14.0078
-46.8945 -39.2188 14.8008
-5.25 -0.835938 0.0429688
-46.2031 -36.8008 -13.3711
-46.2031 -36.8008 -13.3711
-47.8203 -38.2227 -13.9023
-5.33984 -0.910156 0.0390625
-45.6484 -36.1094 -12.2422
-45.6484 -36.1094 -12.2422
-48.0547 -38.2109 -12.9766
-5.42578 -0.980469 0.0351563
-46.8516 -36.9648 -11.6484
-46.8516 -36.9648 -11.6484
-48.4023 -38.3125 -12.0859
-5.49609 -1.03516 0.0429688
-46.7266 -36.6797 -10.668
-46.7266 -36.6797 -10.668
-48.6367 -38.332 -11.1641
-5.58984 -1.11328 0.046875
-47.4766 -37.168 -9.91797
-47.4766 -37.168 -9.91797
-48.8711 -38.3672 -10.25
-5.78125 -1.27344 0.0351563
-47.3242 -36.8906 -8.94922
-47.3242 -36.8906 -8.94922
-48.9844 -38.3164 -9.30859
-5.94531 -1.41016 0.03125
-47.8164 -37.1797 -8.125
-47.8164 -37.1797 -8.125
-49.2188 -38.3828 -8.39844
-6.13672 -1.57031 0.0351563
-47.6602 -36.9336 -7.17578
-47.6602 -36.9336 -7.17578
-49.3359 -38.3633 -7.46484
-6.25391 -1.66406 0.0546875
-47.7734 -36.9297 -6.28125
-47.7734 -36.9297 -6.28125
-49.4531 -38.3555 -6.53516
-6.625 -1.97266 0.046875
-48.1523 -37.1641 -5.42578
-48.1523 -37.1641 -5.42578
-49.5703 -38.3672 -5.61328
-6.82422 -2.13672 0.0742188
-47.1914 -36.2813 -4.41016
-47.1914 -36.2813 -4.41016
-49.6836 -38.3906 -4.6875
-7.32031 -2.55078 0.0820313
-47.3008 -36.3164 -3.53516
-47.3008 -36.3164 -3.53516
-49.8008 -38.4258 -3.76172
-47.4102 -36.3633 -2.66406
-47.4102 -36.3633 -2.66406
-47.4102 -36.3633 -2.66406
-49.918 -38.4766 -2.83594
-48.1563 -36.9531 -1.81641
-48.1563 -36.9531 -1.81641
-48.1563 -36.9531 -1.81641
-49.918 -38.4414 -1.90625
-11.1602 -5.78125 0.152344
-48.4922 -37.2148 -0.933594
-48.4922 -37.2148 -0.933594
-49.918 -38.4219 -0.976563
-11.6211 -6.16797 0.289063
-48.1328 -36.9023 -0.03125
-48.1328 -36.9023 -0.03125
-49.918 -38.4141 -0.046875
-12.1641 -6.625 0.441406
-47.4102 -36.3086 0.847656
-47.4102 -36.3086 0.847656
-49.918 -38.418 0.878906
-48.4922 -37.2344 1.76172
-48.4922 -37.2344 1.76172
-48.4922 -37.2344 1.76172
-49.918 -38.4375 1.80859
-12.2539 -6.71094 0.765625
-47.4102 -36.3594 2.60938
-47.4102 -36.3594 2.60938
-49.918 -38.4727 2.73828
-12.332 -6.78516 0.933594
-47.3008 -36.3086 3.48438
-47.3008 -36.3086 3.48438
-49.8008 -38.418 3.66797
-12.3398 -6.80078 1.10156
-47.6641 -36.668 4.40234
-47.6641 -36.668 4.40234
-49.8008 -38.4805 4.60547
-12.3828 -6.85156 1.27344
-48.043 -37.0586 5.34375
-48.043 -37.0586 5.34375
-49.6836 -38.457 5.53125
-12.4063 -6.88672 1.44531
-47.082 -36.332 6.125
-47.082 -36.332 6.125
-49.5703 -38.4453 6.46094
-12.4102 -6.90625 1.61328
-47.7969 -37.0352 7.13281
-47.7969 -37.0352 7.13281
-49.4531 -38.4492 7.39453
-12.3789 -6.90234 1.78125
-47.6406 -37.0195 8.02734
-47.6406 -37.0195 8.02734
-49.2188 -38.3711 8.30859
-12.3594 -6.91016 1.94922
-47.6133 -37.125 8.94922
-47.6133 -37.125 8.94922
-49.1016 -38.4023 9.24609
-12.3047 -6.89063 2.11328
-47.2578 -36.9648 9.80859
-47.2578 -36.9648 9.80859
-48.8711 -38.3555 10.1641
-12.3125 -6.92578 2.28906
-47.3633 -37.2188 10.7734
-47.3633 -37.2188 10.7734
-48.7539 -38.418 11.1133
-12.2617 -6.91406 2.45313
-46.9219 -37.0117 11.6172
-46.9219 -37.0117 11.6172
-48.5195 -38.4023 12.0391
-12.2188 -6.91406 2.62109
-46.6094 -36.9336 12.4883
-46.6094 -36.9336 12.4883
-48.2891 -38.4023 12.9688
-12.1445 -6.88672 2.78125
-46.2695 -36.8516 13.3555
-46.2695 -36.8516 13.3555
-47.9375 -38.3164 13.8711
-12.1133 -6.90234 2.95313
-45.3203 -36.2461 14.0195
-45.3203 -36.2461 14.0195
-47.7031 -38.3555 14.8164
-5.26953 -0.820313 0.0429688
-46.6992 -35.7734 -13.3242
-46.6992 -35.7734 -13.3242
-48.5195 -37.3086 -13.9102
-5.38281 -0.910156 0.03125
-46.4219 -35.3438 -12.2852
-46.4219 -35.3438 -12.2852
-48.8711 -37.3984 -13.0195
-5.40625 -0.925781 0.046875
-47.6992 -36.2383 -11.707
-47.6992 -36.2383 -11.707
-49.1016 -37.4063 -12.0977
-5.51172 -1.00781 0.0429688
-47.9258 -36.2578 -10.8164
-47.9258 -36.2578 -10.8164
-49.3359 -37.4297 -11.1758
-5.61328 -1.08984 0.046875
-47.8789 -36.0703 -9.86328
-47.8789 -36.0703 -9.86328
-49.5703 -37.4688 -10.2578
-5.82422 -1.26172 0.0273438
-48.1953 -36.1992 -9.00391
-48.1953 -36.1992 -9.00391
-49.8008 -37.5234 -9.34766
-5.95703 -1.36328 0.0351563
-48.2188 -36.0898 -8.08203
-48.2188 -36.0898 -8.08203
-49.918 -37.4922 -8.41016
-6.06641 -1.45313 0.0507813
-48.3906 -36.1289 -7.19531
-48.3906 -36.1289 -7.19531
-50.0352 -37.4766 -7.47656
-6.30078 -1.64063 0.0507813
-48.8281 -36.3906 -6.35156
-48.8281 -36.3906 -6.35156
-50.2695 -37.5664 -6.56641
-6.66016 -1.92578 0.046875
-48.7578 -36.2539 -5.42578
-48.7578 -36.2539 -5.42578
-50.3828 -37.5742 -5.63672
-6.89063 -2.11328 0.0703125
-47.9609 -35.5352 -4.43359
-47.9609 -35.5352 -4.43359
-50.5 -37.6016 -4.71094
-7.35938 -2.48828 0.0820313
-48.9609 -36.2969 -3.63672
-48.9609 -36.2969 -3.63672
-50.5 -37.543 -3.77344
-7.99219 -3 0.0976563
-47.9609 -35.4375 -2.66406
-47.9609 -35.4375 -2.66406
-50.5 -37.4961 -2.83594
-48.8438 -36.125 -1.82813
-48.8438 -36.125 -1.82813
-48.8438 -36.125 -1.82813
-50.6172 -37.5625 -1.91406
-11.3359 -5.70703 0.152344
-48.0703 -35.4805 -0.90625
-48.0703 -35.4805 -0.90625
-50.6172 -37.543 -0.980469
-11.9453 -6.19922 0.285156
-48.0703 -35.4727 -0.0273438
-48.0703 -35.4727 -0.0273438
-50.6172 -37.5352 -0.0507813
-12.2578 -6.45313 0.441406
-48.0703 -35.4766 0.84375
-48.0703 -35.4766 0.84375
-50.6172 -37.5391 0.875
-48.0703 -35.4961 1.72266
-48.0703 -35.4961 1.72266
-48.0703 -35.4961 1.72266
-50.6172 -37.5586 1.80469
-12.6133 -6.75 0.777344
-48.9844 -36.2656 2.65234
-48.9844 -36.2656 2.65234
-50.6172 -37.5859 2.73828
-12.6445 -6.78516 0.949219
-47.9609 -35.4727 3.48438
-47.9609 -35.4727 3.48438
-50.5 -37.5352 3.66797
-12.6797 -6.82422 1.12109
-48.9609 -36.3438 4.46094
-48.9609 -36.3438 4.46094
-50.5 -37.5938 4.60156
-12.7227 -6.86719 1.29688
-48.8477 -36.3203 5.35938
-48.8477 -36.3203 5.35938
-50.3828 -37.5664 5.53125
-12.707 -6.87109 1.46875
-47.7422 -35.4961 6.125
-47.7422 -35.4961 6.125
-50.2695 -37.5547 6.46094
-12.7148 -6.89453 1.64063
-48.7148 -36.3789 7.17578
-48.7148 -36.3789 7.17578
-50.1523 -37.5547 7.39453
-12.6953 -6.89844 1.8125
-47.5234 -35.5078 7.89063
-47.5234 -35.5078 7.89063
-50.0352 -37.5742 8.32813
-12.7461 -6.96094 2
-48.0898 -36.0938 8.91016
-48.0898 -36.0938 8.91016
-49.918 -37.6016 9.26953
-12.6172 -6.88281 2.15234
-47.1914 -35.4844 9.64844
-47.1914 -35.4844 9.64844
-49.6836 -37.5508 10.1875
-12.5703 -6.87109 2.32031
-46.9727 -35.4492 10.5195
-46.9727 -35.4492 10.5195
-49.4531 -37.5117 11.1094
-12.5234 -6.86328 2.48828
-47.5898 -36.1328 11.6133
-47.5898 -36.1328 11.6133
-49.2188 -37.4883 12.0352
-12.4492 -6.83984 2.65234
-46.5313 -35.4219 12.2695
-46.5313 -35.4219 12.2695
-48.9844 -37.4805 12.9648
-12.3242 -6.76953 2.79688
-46.3086 -35.4297 13.1563
-46.3086 -35.4297 13.1563
-48.7539 -37.4883 13.8984
-12.3359 -6.82031 2.98438
-46.8477 -36.0977 14.293
-46.8477 -36.0977 14.293
-48.4023 -37.418 14.8047
-5.27344 -0.789063 0.046875
-47.582 -35.0977 -13.4102
-47.582 -35.0977 -13.4102
-49.3359 -36.5195 -13.9648
-5.35156 -0.851563 0.0429688
-47.7617 -35.0625 -12.5039
-47.7617 -35.0625 -12.5039
-49.5703 -36.5156 -13.0391
-5.41016 -0.894531 0.0507813
-47.9844 -35.0703 -11.6172
-47.9844 -35.0703 -11.6172
-49.8008 -36.5313 -12.1133
-5.51563 -0.972656 0.046875
-48.2695 -35.1445 -10.75
-48.2695 -35.1445 -10.75
-50.0352 -36.5586 -11.1953
-5.62891 -1.0625 0.046875
-48.4922 -35.1836 -9.87109
-48.4922 -35.1836 -9.87109
-50.2695 -36.5938 -10.2813
-5.80078 -1.19531 0.0390625
-48.6875 -35.2109 -8.98438
-48.6875 -35.2109 -8.98438
-50.5 -36.6484 -9.36719
-5.95313 -1.3125 0.0390625
-48.9141 -35.2813 -8.10547
-48.9141 -35.2813 -8.10547
-50.6172 -36.625 -8.42969
-6.03516 -1.37109 0.0585938
-48.9336 -35.1953 -7.19141
-48.9336 -35.1953 -7.19141
-50.7344 -36.6094 -7.49609
-6.35547 -1.62109 0.046875
-49.0469 -35.1953 -6.29688
-49.0469 -35.1953 -6.29688
-50.8516 -36.6133 -6.56641
-6.65625 -1.85156 0.0507813
-49.1367 -35.1914 -5.40625
-49.1367 -35.1914 -5.40625
-50.9688 -36.625 -5.64063
-6.90234 -2.04297 0.0703125
-49.1563 -35.1406 -4.50391
-49.1563 -35.1406 -4.50391
-51.082 -36.6523 -4.71094
-7.375 -2.40625 0.0820313
-49.4063 -35.2891 -3.625
-49.4063 -35.2891 -3.625
-51.1992 -36.6914 -3.78516
-8.07031 -2.94922 0.0976563
-49.4727 -35.2969 -2.73047
-49.4727 -35.2969 -2.73047
-51.3164 -36.7383 -2.85938
-49.6602 -35.4141 -1.84375
-49.6602 -35.4141 -1.84375
-49.6602 -35.4141 -1.84375
-51.3164 -36.707 -1.92188
-11.6328 -5.72266 0.144531
-49.5352 -35.3008 -0.9375
-49.5352 -35.3008 -0.9375
-51.3164 -36.6914 -0.988281
-12.207 -6.17188 0.285156
-49.6758 -35.4023 -0.0429688
-49.6758 -35.4023 -0.0429688
-51.4336 -36.7734 -0.0585938
-12.6172 -6.49609 0.441406
-48.8438 -34.7578 0.84375
-48.8438 -34.7578 0.84375
-51.4336 -36.7773 0.871094
-49.4414 -35.2422 1.74609
-49.4414 -35.2422 1.74609
-49.4414 -35.2422 1.74609
-51.3164 -36.7031 1.80469
-12.8867 -6.71094 0.785156
-49.543 -35.3477 2.64844
-49.543 -35.3477 2.64844
-51.3164 -36.7344 2.73828
-12.9922 -6.80469 0.964844
-49.3789 -35.2578 3.53906
-49.3789 -35.2578 3.53906
-51.3164 -36.7734 3.67578
-13.0039 -6.82422 1.14063
-49.3594 -35.293 4.4375
-49.3594 -35.293 4.4375
-51.1992 -36.7344 4.60547
-13 -6.83203 1.31641
-49.2461 -35.2656 5.33203
-49.2461 -35.2656 5.33203
-51.082 -36.707 5.53516
-13.0313 -6.86719 1.49219
-49.1797 -35.2891 6.23438
-49.1797 -35.2891 6.23438
-50.9688 -36.6914 6.46875
-13.043 -6.89453 1.67188
-49.0547 -35.2773 7.12891
-49.0547 -35.2773 7.12891
-50.8516 -36.6914 7.39844
-13.0273 -6.90234 1.85156
-48.957 -35.2969 8.03125
-48.957 -35.2969 8.03125
-50.7344 -36.6992 8.33594
-12.9414 -6.85547 2.01563
-48.6875 -35.1953 8.90625
-48.6875 -35.1953 8.90625
-50.5 -36.6328 9.25391
-12.9648 -6.89844 2.19922
-48.6641 -35.3008 9.82813
-48.6641 -35.3008 9.82813
-50.3828 -36.668 10.1953
-12.9102 -6.87891 2.37109
-48.3203 -35.168 10.6914
-48.3203 -35.168 10.6914
-50.1523 -36.625 11.1211
-12.8555 -6.86719 2.54297
-48.1289 -35.1641 11.582
-48.1289 -35.1641 11.582
-49.918 -36.6016 12.043
-12.8125 -6.86719 2.71484
-47.9023 -35.1523 12.4766
-47.9023 -35.1523 12.4766
-49.6836 -36.5898 12.9727
-12.7148 -6.82422 2.875
-47.7969 -35.25 13.4102
-47.7969 -35.25 13.4102
-49.4531 -36.5898 13.9063
-12.6641 -6.82031 3.05078
-47.5234 -35.2305 14.2969
-47.5234 -35.2305 14.2969
-49.2188 -36.6094 14.8438
-5.28906 -0.773438 0.0429688
-48.2852 -34.2891 -13.4453
-48.2852 -34.2891 -13.4453
-50.0313 -35.6523 -13.9961
-5.37109 -0.835938 0.0390625
-48.3711 -34.1875 -12.5156
-48.3711 -34.1875 -12.5156
-50.2656 -35.6523 -13.0664
-5.46094 -0.902344 0.0390625
-48.6875 -34.2734 -11.6523
-48.6875 -34.2734 -11.6523
-50.4961 -35.6719 -12.1445
-5.53125 -0.949219 0.046875
-49.0039 -34.375 -10.793
-49.0039 -34.375 -10.793
-50.7305 -35.7031 -11.2227
-5.62891 -1.01953 0.0507813
-49.1797 -34.3789 -9.89844
-49.1797 -34.3789 -9.89844
-50.9648 -35.7461 -10.3086
-5.77734 -1.13281 0.046875
-49.293 -34.3477 -8.99609
-49.293 -34.3477 -8.99609
-51.0781 -35.7148 -9.36719
-5.97656 -1.28125 0.0390625
-48.7305 -33.8164 -7.96875
-48.7305 -33.8164 -7.96875
-51.3125 -35.7813 -8.45313
-6.125 -1.39063 0.046875
-49.582 -34.3711 -7.21094
-49.582 -34.3711 -7.21094
-51.4297 -35.7734 -7.51953
-6.44531 -1.62891 0.0390625
-49.6953 -34.375 -6.31641
-49.6953 -34.375 -6.31641
-51.5469 -35.7773 -6.58594
-6.67969 -1.80078 0.0507813
-49.7148 -34.3164 -5.41016
-49.7148 -34.3164 -5.41016
-51.6602 -35.7891 -5.65625
-6.99609 -2.03516 0.0664063
-49.168 -33.8477 -4.44922
-49.168 -33.8477 -4.44922
-51.7773 -35.8164 -4.73047
-7.42188 -2.35156 0.0820313
-50.0781 -34.4805 -3.64063
-50.0781 -34.4805 -3.64063
-51.8945 -35.8555 -3.80078
-8.07813 -2.84766 0.0976563
-49.9375 -34.3398 -2.73047
-49.9375 -34.3398 -2.73047
-51.8945 -35.8164 -2.86328
-50.1719 -34.4883 -1.84375
-50.1719 -34.4883 -1.84375
-50.1719 -34.4883 -1.84375
-52.0117 -35.875 -1.93359
-11.793 -5.63281 0.140625
-50.168 -34.4688 -0.941406
-50.168 -34.4688 -0.941406
-52.0117 -35.8594 -0.996094
-12.5469 -6.19922 0.28125
-50.0469 -34.375 -0.0429688
-50.0469 -34.375 -0.0429688
-52.0117 -35.8516 -0.0625
-12.9648 -6.51563 0.445313
-50.1875 -34.4805 0.847656
-50.1875 -34.4805 0.847656
-52.0117 -35.8555 0.867188
-50.2617 -34.5508 1.75
-50.2617 -34.5508 1.75
-50.2617 -34.5508 1.75
-52.0117 -35.8711 1.80469
-13.2813 -6.76172 0.800781
-50.1406 -34.4883 2.64453
-50.1406 -34.4883 2.64453
-52.0117 -35.8984 2.73828
-13.293 -6.77734 0.976563
-50.1563 -34.5313 3.55078
-50.1563 -34.5313 3.55078
-51.8945 -35.8477 3.67188
-13.3359 -6.82031 1.16016
-50.125 -34.5547 4.45313
-50.125 -34.5547 4.45313
-51.8945 -35.8945 4.61328
-13.332 -6.82813 1.33984
-49.918 -34.4609 5.33984
-49.918 -34.4609 5.33984
-51.7773 -35.8672 5.54688
-13.3359 -6.84375 1.51953
-49.8789 -34.5 6.24609
-49.8789 -34.5 6.24609
-51.6602 -35.8516 6.48047
-13.3945 -6.90234 1.71094
-49.7891 -34.5117 7.14844
-49.7891 -34.5117 7.14844
-51.5469 -35.8477 7.41406
-13.3125 -6.85938 1.87891
-49.6289 -34.4844 8.04297
-49.6289 -34.4844 8.04297
-51.4297 -35.8555 8.35156
-13.2813 -6.85547 2.05859
-49.3594 -34.3789 8.91797
-49.3594 -34.3789 8.91797
-51.1953 -35.7813 9.26953
-13.3125 -6.90234 2.25
-49.1563 -34.3398 9.80469
-49.1563 -34.3398 9.80469
-51.0781 -35.8164 10.2109
-13.1797 -6.82813 2.40625
-49.0469 -34.3867 10.7188
-49.0469 -34.3867 10.7188
-50.8477 -35.7695 11.1367
-13.1328 -6.82031 2.58203
-48.8242 -34.3555 11.6055
-48.8242 -34.3555 11.6055
-50.6133 -35.7383 12.0586
-13.0781 -6.80859 2.75781
-48.7578 -34.4648 12.543
-48.7578 -34.4648 12.543
-50.3789 -35.7227 12.9883
-13 -6.78125 2.92578
-48.3945 -34.3516 13.4023
-48.3945 -34.3516 13.4023
-50.1484 -35.7188 13.9219
-12.8906 -6.73438 3.08203
-48.2188 -34.3984 14.3164
-48.2188 -34.3984 14.3164
-49.9141 -35.7305 14.8594
-5.3125 -0.761719 0.0390625
-48.8867 -33.4258 -13.4609
-48.8867 -33.4258 -13.4609
-50.6133 -34.7188 -13.9961
-5.39063 -0.816406 0.0390625
-49.0391 -33.3828 -12.5508
-49.0391 -33.3828 -12.5508
-50.9648 -34.8164 -13.1055
-5.44531 -0.851563 0.046875
-49.4453 -33.543 -11.7148
-49.4453 -33.543 -11.7148
-51.1953 -34.8398 -12.1836
-5.51563 -0.902344 0.0546875
-49.6719 -33.5742 -10.8281
-49.6719 -33.5742 -10.8281
-51.4297 -34.8711 -11.2617
-5.67578 -1.01563 0.0429688
-49.5977 -33.3984 -9.875
-49.5977 -33.3984 -9.875
-51.5469 -34.832 -10.3164
-5.80078 -1.10938 0.046875
-49.9141 -33.5195 -9.01953
-49.9141 -33.5195 -9.01953
-51.7773 -34.8867 -9.40234
-5.97656 -1.23438 0.0429688
-50.0586 -33.5273 -8.12109
-50.0586 -33.5273 -8.12109
-51.8945 -34.8711 -8.46484
-6.20313 -1.39453 0.0390625
-50.25 -33.5781 -7.23828
-50.25 -33.5781 -7.23828
-52.1289 -34.9492 -7.54688
-6.53516 -1.63672 0.0273438
-50.5547 -33.7227 -6.36719
-50.5547 -33.7227 -6.36719
-52.2461 -34.957 -6.61328
-6.69922 -1.74609 0.0507813
-50.4727 -33.5977 -5.44531
-50.4727 -33.5977 -5.44531
-52.3594 -34.9727 -5.67969
-7.07422 -2.01953 0.0585938
-50.6523 -33.6719 -4.55469
-50.6523 -33.6719 -4.55469
-52.4766 -34.9961 -4.75
-7.45703 -2.29297 0.0820313
-50.6602 -33.6289 -3.64844
-50.6602 -33.6289 -3.64844
-52.4766 -34.9453 -3.80469
-8.09375 -2.75 0.101563
-50.793 -33.6914 -2.75391
-50.793 -33.6914 -2.75391
-52.5938 -34.9961 -2.875
-50.6992 -33.5977 -1.84766
-50.6992 -33.5977 -1.84766
-50.6992 -33.5977 -1.84766
-52.5938 -34.9688 -1.9375
-12.1758 -5.70313 0.132813
-50.6992 -33.582 -0.949219
-50.6992 -33.582 -0.949219
-52.5938 -34.9531 -1
-12.832 -6.17969 0.28125
-50.793 -33.6445 -0.0507813
-50.793 -33.6445 -0.0507813
-52.5938 -34.9453 -0.0664063
-13.2305 -6.46875 0.445313
-50.6523 -33.5469 0.84375
-50.6523 -33.5469 0.84375
-52.5938 -34.9492 0.863281
-50.6016 -33.5234 1.74219
-50.6016 -33.5234 1.74219
-50.6016 -33.5234 1.74219
-52.5938 -34.9648 1.80078
-13.5352 -6.69141 0.804688
-50.8438 -33.7227 2.65234
-50.8438 -33.7227 2.65234
-52.5938 -34.9883 2.73828
-13.707 -6.82422 1
-50.6992 -33.6523 3.54688
-50.6992 -33.6523 3.54688
-52.5938 -35.0234 3.67969
-13.7344 -6.85156 1.18359
-50.6797 -33.6836 4.45313
-50.6797 -33.6836 4.45313
-52.4766 -34.9844 4.61328
-13.7227 -6.85156 1.36719
-50.4727 -33.5859 5.33984
-50.4727 -33.5859 5.33984
-52.3594 -34.9609 5.54688
-13.6953 -6.84766 1.55078
-49.6094 -33.0234 6.14063
-49.6094 -33.0234 6.14063
-52.2461 -34.9414 6.48047
-13.7188 -6.87891 1.74219
-50.3438 -33.6289 7.14844
-50.3438 -33.6289 7.14844
-52.1289 -34.9336 7.41406
-13.7227 -6.89844 1.92969
